ply
format ascii 1.0
comment Tomb of Jam Nizamuddin II, Makli Necropolis, Thatta
comment PMW Internship 2026, AI-Based 3D Reconstruction Track
comment Monocular heuristic reconstruction (not multi-view SfM), see README for method and limitations
comment Source photo: Wikimedia Commons, credit per project source log
element vertex 1477
property float x
property float y
property float z
property uchar red
property uchar green
property uchar blue
end_header
-0.6284 2.0075 4.6552 108 90 18
-0.6057 2.0093 4.6593 138 119 53
-0.5821 2.0083 4.6569 121 103 37
-0.5529 1.9871 4.6077 115 96 27
-0.5343 2.0035 4.6458 135 115 46
-0.5192 2.0357 4.7204 124 104 33
-0.4882 2.0051 4.6494 125 109 47
-0.4563 1.9679 4.5633 45 31 0
-0.4432 2.0120 4.6654 91 78 25
-0.4236 2.0298 4.7067 52 39 0
-0.3985 2.0216 4.6878 106 93 51
-0.3758 2.0256 4.6971 78 67 13
-0.3535 2.0326 4.7132 90 73 27
-0.3258 2.0073 4.6545 75 58 2
-0.3040 2.0166 4.6762 93 78 23
-0.2769 1.9905 4.6157 82 66 14
-0.2504 1.9635 4.5531 98 85 32
-0.2341 2.0190 4.6818 102 89 37
-0.2088 2.0014 4.6410 56 44 0
-0.1842 1.9860 4.6053 63 51 0
-0.1636 2.0157 4.6740 68 57 3
-0.1394 2.0039 4.6466 131 120 66
-0.1159 1.9999 4.6373 122 107 42
-0.0888 1.9149 4.4403 111 90 35
-0.0654 1.8810 4.3618 109 85 39
-0.0467 2.0155 4.6736 98 72 23
-0.0236 2.0326 4.7134 85 63 5
0.0000 2.0278 4.7023 93 73 10
0.0234 2.0168 4.6766 65 45 0
0.0470 2.0257 4.6972 75 55 20
0.0701 2.0159 4.6744 54 40 5
0.0936 2.0175 4.6782 67 53 16
0.1176 2.0290 4.7050 84 67 21
0.1417 2.0369 4.7233 51 37 0
0.1646 2.0279 4.7025 56 45 0
0.1879 2.0261 4.6981 74 65 22
0.2106 2.0186 4.6808 49 37 0
0.2342 2.0201 4.6843 53 38 0
0.2594 2.0342 4.7169 71 61 10
0.2832 2.0352 4.7192 72 62 11
0.3058 2.0286 4.7041 70 57 13
0.3275 2.0173 4.6779 67 51 17
0.3535 2.0324 4.7128 56 40 7
0.3739 2.0156 4.6738 46 30 0
0.3993 2.0259 4.6978 53 40 0
0.4184 2.0047 4.6485 66 53 8
0.4458 2.0237 4.6926 77 49 1
0.4642 2.0019 4.6421 107 78 22
0.4845 1.9900 4.6145 136 114 41
0.5121 2.0077 4.6555 176 158 74
0.5373 2.0148 4.6720 203 182 101
0.5576 2.0040 4.6470 156 134 61
0.5859 2.0212 4.6869 180 160 89
0.6038 2.0030 4.6447 129 113 38
0.6142 1.9620 4.5495 132 113 54
0.6255 1.9266 4.4675 186 167 101
0.6757 2.0096 4.6600 141 122 43
0.7011 2.0156 4.6740 173 155 69
0.7299 2.0308 4.7091 149 128 47
0.7487 2.0179 4.6791 138 116 43
0.7669 2.0045 4.6481 123 98 31
0.8006 2.0310 4.7096 159 135 65
0.8213 2.0238 4.6929 200 176 106
0.8459 2.0266 4.6995 165 141 67
0.8764 1.9893 4.6129 180 160 87
0.8979 1.9858 4.6048 203 178 111
0.9308 2.0070 4.6539 95 66 0
0.9357 1.9685 4.5646 155 126 60
0.9608 1.9730 4.5751 170 146 82
1.0138 2.0335 4.7154 188 155 76
1.0353 2.0294 4.7058 195 157 74
1.0527 2.0176 4.6785 143 105 22
1.0775 2.0203 4.6847 180 142 61
1.1057 2.0290 4.7049 190 152 71
1.1349 2.0393 4.7289 205 166 87
1.1567 2.0360 4.7213 201 162 83
1.1813 2.0377 4.7251 200 161 84
1.2036 2.0354 4.7198 202 169 90
1.2272 2.0356 4.7201 194 163 83
1.2514 2.0364 4.7222 194 163 83
1.2775 2.0404 4.7313 198 165 86
1.3003 2.0390 4.7282 191 158 79
1.3236 2.0386 4.7272 191 160 80
1.3480 2.0397 4.7298 191 160 80
1.3697 2.0369 4.7232 190 159 79
1.3959 2.0406 4.7319 187 158 78
1.4126 2.0305 4.7085 186 159 88
1.3247 1.8730 4.3433 117 97 34
1.3408 1.8653 4.3252 131 115 53
1.4632 2.0033 4.6452 185 172 102
1.4972 2.0177 4.6788 180 162 86
1.5346 2.0363 4.7219 198 172 97
1.5601 2.0388 4.7276 195 162 93
1.5729 2.0249 4.6953 183 164 88
1.6231 2.0289 4.7048 197 177 116
1.6540 2.0379 4.7256 199 177 104
1.6783 2.0388 4.7275 194 165 95
1.6996 2.0359 4.7210 198 173 91
1.6818 1.9871 4.6078 200 181 102
1.6973 1.9783 4.5873 27 12 0
1.7639 2.0285 4.7038 193 168 101
1.7938 2.0358 4.7206 191 163 89
1.8196 2.0382 4.7261 185 157 84
1.8295 2.0230 4.6910 181 151 81
1.8410 2.0100 4.6608 179 148 81
1.8718 2.0180 4.6795 202 171 106
1.8921 2.0147 4.6717 183 149 86
1.9208 2.0204 4.6850 194 160 99
1.9483 2.0246 4.6946 190 164 89
1.9760 2.0289 4.7047 195 174 93
1.9904 2.0197 4.6834 182 159 89
2.0082 2.0141 4.6703 174 150 80
2.0522 2.0345 4.7177 162 134 71
2.0782 2.0369 4.7232 150 121 55
2.0785 2.0143 4.6709 166 145 62
1.9612 1.8795 4.3582 109 92 40
2.0817 1.9730 4.5751 23 4 0
2.1961 2.0367 4.7227 197 173 101
2.2103 2.0280 4.7027 198 171 102
2.2379 2.0318 4.7114 199 178 111
2.2595 2.0300 4.7072 200 183 105
2.2587 2.0084 4.6571 183 165 83
2.2978 2.0019 4.6421 156 134 61
2.3269 2.0070 4.6538 172 148 78
2.4754 2.0334 4.7151 157 130 59
2.5053 2.0385 4.7270 174 147 80
2.5285 2.0193 4.6823 183 158 91
2.5795 2.0411 4.7331 199 176 109
2.5954 2.0351 4.7190 196 173 106
2.6163 2.0329 4.7140 187 164 97
2.6428 2.0352 4.7193 193 170 103
2.6585 2.0292 4.7054 197 174 107
2.6816 2.0288 4.7046 167 142 76
2.6329 1.9746 4.5789 153 137 75
2.6738 1.9881 4.6101 200 156 81
2.7248 2.0087 4.6578 151 134 118
2.7835 2.0345 4.7178 99 149 184
2.8150 2.0403 4.7311 96 156 192
2.8378 2.0397 4.7297 108 152 199
2.8631 2.0409 4.7324 102 160 200
2.8820 2.0375 4.7246 103 156 188
2.9104 2.0409 4.7324 102 157 196
2.9319 2.0393 4.7289 97 155 195
-2.9525 2.0136 4.7240 90 147 190
-2.9270 2.0123 4.7209 95 154 196
-2.9049 2.0133 4.7234 92 151 191
-2.8810 2.0132 4.7230 92 154 193
-2.8552 2.0116 4.7193 93 155 194
-2.8279 2.0090 4.7132 92 151 191
-2.8063 2.0104 4.7165 96 154 194
-2.7868 2.0133 4.7234 99 154 195
-2.7440 1.9993 4.6905 111 144 159
-2.7339 2.0092 4.7136 171 163 117
-2.7122 2.0106 4.7169 185 148 78
-2.6913 2.0126 4.7216 188 153 71
-2.6652 2.0107 4.7171 185 152 71
-2.6352 2.0058 4.7057 180 147 80
-2.6078 2.0029 4.6988 170 146 72
-2.5933 2.0098 4.7151 179 150 72
-2.5742 2.0133 4.7234 187 155 78
-2.5476 2.0110 4.7179 190 157 80
-2.5203 2.0080 4.7108 189 155 81
-2.4978 2.0088 4.7128 183 149 75
-2.4718 2.0069 4.7083 187 153 79
-2.4526 2.0105 4.7166 191 157 85
-2.4305 2.0117 4.7195 189 155 83
-2.4099 2.0141 4.7253 190 156 84
-2.3847 2.0128 4.7221 187 158 82
-2.3606 2.0124 4.7212 187 158 82
-2.3378 2.0131 4.7229 188 159 83
-2.3109 2.0102 4.7160 189 157 82
-2.2874 2.0103 4.7163 191 158 81
-2.2631 2.0097 4.7148 195 159 81
-2.2438 2.0135 4.7237 190 155 74
-2.2168 2.0104 4.7165 189 154 73
-2.1822 2.0003 4.6928 188 155 76
-2.1612 2.0027 4.6984 201 169 92
-2.1401 2.0049 4.7036 191 157 83
-2.1205 2.0086 4.7123 191 157 85
-2.0949 2.0066 4.7077 194 157 86
-2.0738 2.0090 4.7132 187 153 79
-2.0480 2.0068 4.7081 192 159 80
-2.0276 2.0100 4.7155 189 156 75
-2.0056 2.0115 4.7190 185 150 68
-1.9780 2.0074 4.7096 187 152 68
-1.9554 2.0084 4.7119 189 154 72
-1.9328 2.0094 4.7143 193 158 76
-1.9096 2.0098 4.7151 189 154 72
-1.8865 2.0103 4.7163 188 153 71
-1.8614 2.0087 4.7124 184 149 67
-1.8392 2.0101 4.7158 194 157 76
-1.8164 2.0110 4.7179 197 159 76
-1.7930 2.0112 4.7185 196 155 75
-1.7673 2.0088 4.7127 194 153 73
-1.7380 2.0023 4.6974 191 150 70
-1.7001 1.9854 4.6579 195 153 69
-1.6856 1.9959 4.6824 191 149 63
-1.6663 2.0007 4.6938 201 159 73
-1.6419 1.9996 4.6912 186 141 58
-1.6123 1.9920 4.6732 196 158 75
-1.5957 2.0005 4.6933 180 144 60
-1.5653 1.9917 4.6725 193 158 74
-1.5277 2.0036 4.7005 203 171 88
-1.5092 2.0103 4.7163 195 160 78
-1.4877 2.0132 4.7230 194 157 77
-1.4607 2.0084 4.7119 199 160 81
-1.4348 2.0052 4.7043 197 162 72
-1.4080 2.0005 4.6933 189 158 67
-1.3849 2.0010 4.6945 192 166 79
-1.3123 1.9289 4.5252 133 112 31
-1.3381 2.0013 4.6952 116 99 27
-1.3222 2.0128 4.7221 103 92 26
-1.2880 1.9964 4.6836 90 80 18
-1.2674 2.0009 4.6942 97 88 29
-1.2456 2.0036 4.7005 94 81 26
-1.2225 2.0042 4.7018 91 80 24
-1.2017 2.0087 4.7124 86 76 15
-1.1321 1.9302 4.5284 81 64 0
-1.1529 2.0058 4.7058 184 159 75
-1.1294 2.0059 4.7059 189 159 63
-1.1049 2.0042 4.7019 197 167 69
-1.0765 1.9950 4.6803 170 146 48
-0.9983 1.8912 4.4367 145 123 48
-1.0153 1.9672 4.6152 50 31 1
-0.9432 1.8700 4.3870 193 181 133
-0.9794 1.9880 4.6639 178 160 86
-0.9663 2.0091 4.7135 162 137 73
-0.9242 1.9698 4.6211 167 144 74
-0.9066 1.9817 4.6491 185 164 83
-0.8872 1.9903 4.6693 159 126 55
-0.8547 1.9694 4.6202 158 131 54
-0.8379 1.9841 4.6548 169 146 68
-0.8045 1.9596 4.5972 142 119 41
-0.7854 1.9694 4.6202 145 122 46
-0.7650 1.9762 4.6362 114 91 15
-0.7444 1.9832 4.6526 162 139 63
-0.7153 1.9671 4.6149 136 114 39
-0.6999 1.9889 4.6659 116 97 21
-0.6733 1.9794 4.6438 132 112 39
-0.6407 1.9507 4.5764 145 125 54
-0.6177 1.9505 4.5758 143 122 55
-0.5952 1.9516 4.5786 142 121 56
-0.5800 1.9779 4.6403 111 90 25
-0.5588 1.9850 4.6570 116 95 28
-0.5295 1.9626 4.6044 145 122 54
-0.5072 1.9652 4.6106 157 133 63
-0.4824 1.9582 4.5941 106 90 28
-0.4499 1.9177 4.4991 116 101 46
-0.4372 1.9615 4.6018 94 77 21
-0.4149 1.9652 4.6104 113 96 42
-0.3950 1.9810 4.6475 84 64 13
-0.3715 1.9794 4.6437 110 93 39
-0.3463 1.9681 4.6173 91 75 24
-0.3292 2.0045 4.7025 106 90 39
-0.3063 2.0083 4.7116 98 81 11
-0.2781 1.9758 4.6353 115 98 26
-0.2543 1.9711 4.6243 163 146 77
-0.2328 1.9844 4.6556 95 80 15
-0.2098 1.9869 4.6613 108 92 30
-0.1858 1.9800 4.6451 110 94 32
-0.1640 1.9975 4.6862 96 76 13
-0.1406 1.9971 4.6853 118 97 32
-0.1170 1.9950 4.6805 134 115 47
-0.0888 1.8923 4.4395 142 123 55
-0.0659 1.8736 4.3956 117 96 31
-0.0464 1.9760 4.6357 129 108 43
-0.0234 1.9962 4.6832 76 55 0
0.0000 2.0032 4.6996 88 67 4
0.0231 1.9694 4.6204 98 79 21
0.0464 1.9759 4.6355 76 58 8
0.0694 1.9716 4.6255 91 75 24
0.0936 1.9943 4.6787 74 57 11
0.1175 2.0028 4.6986 61 45 0
0.1413 2.0071 4.7087 57 40 0
0.1650 2.0093 4.7140 79 62 16
0.1878 2.0008 4.6939 69 52 6
0.2112 2.0005 4.6932 78 60 14
0.2331 1.9869 4.6614 83 65 15
0.2591 2.0077 4.7102 52 40 0
0.2815 1.9997 4.6914 62 50 0
0.3061 2.0075 4.7096 68 54 9
0.3275 1.9941 4.6783 77 59 21
0.3510 1.9951 4.6807 55 37 1
0.3745 1.9954 4.6813 79 61 23
0.3978 1.9948 4.6799 50 33 0
0.4181 1.9801 4.6453 79 65 20
0.4418 1.9821 4.6500 60 41 0
0.4657 1.9851 4.6570 148 128 69
0.4863 1.9741 4.6314 91 73 11
0.5034 1.9507 4.5765 147 129 63
0.5320 1.9719 4.6261 184 167 98
0.5521 1.9611 4.6008 170 151 82
0.5896 2.0104 4.7165 130 112 38
0.6068 1.9895 4.6675 145 128 46
0.6176 1.9501 4.5750 143 125 53
0.6631 1.9492 4.5729 158 141 63
0.7038 1.9999 4.6918 202 185 105
0.7239 1.9909 4.6706 175 158 78
0.7587 1.9599 4.5979 186 166 93
0.7922 1.9864 4.6601 162 142 71
0.8112 1.9759 4.6354 197 170 103
0.8409 1.9913 4.6716 150 123 54
0.8655 1.9942 4.6784 204 180 106
0.8871 1.9902 4.6691 183 160 90
0.9081 1.9851 4.6571 152 129 62
0.9295 1.9810 4.6474 186 161 97
0.9468 1.9686 4.6183 183 158 92
0.9628 1.9543 4.5849 184 157 90
1.0110 2.0044 4.7025 185 147 64
1.0279 1.9916 4.6725 184 144 57
1.0583 2.0050 4.7037 197 157 72
1.0825 2.0062 4.7066 180 139 57
1.1054 2.0050 4.7038 189 151 68
1.1317 2.0100 4.7155 195 157 76
1.1526 2.0054 4.7047 201 163 82
1.1779 2.0083 4.7117 193 155 72
1.2043 2.0131 4.7228 189 160 66
1.2260 2.0100 4.7155 197 167 79
1.2464 2.0049 4.7035 198 165 88
1.2749 2.0127 4.7218 193 158 76
1.2967 2.0098 4.7152 183 148 67
1.3193 2.0083 4.7116 201 165 87
1.3437 2.0096 4.7146 189 153 67
1.3687 2.0118 4.7197 191 152 83
1.3907 2.0094 4.7143 190 152 77
1.3447 1.8793 4.4088 59 42 0
1.3602 1.8703 4.3879 92 76 25
1.4828 2.0065 4.7073 174 152 94
1.4952 1.9917 4.6725 155 126 58
1.5279 2.0040 4.7014 194 165 95
1.5536 2.0067 4.7078 191 166 99
1.5722 2.0004 4.6931 194 175 106
1.6257 2.0086 4.7122 193 170 103
1.6462 2.0048 4.7034 189 162 81
1.6684 2.0033 4.6998 203 171 96
1.6918 2.0031 4.6993 193 164 84
1.6823 1.9646 4.6091 193 175 89
1.7079 1.9676 4.6160 30 18 0
1.7694 2.0112 4.7185 201 172 102
1.7890 2.0068 4.7080 190 157 80
1.8151 2.0096 4.7146 197 165 88
1.8296 1.9996 4.6912 188 156 81
1.8478 1.9940 4.6780 180 148 75
1.8539 1.9755 4.6347 176 144 71
1.8984 1.9980 4.6873 192 159 80
1.9267 2.0030 4.6992 188 153 71
1.9499 2.0028 4.6987 192 166 82
1.9925 1.9984 4.6883 189 165 103
2.0205 2.0029 4.6988 198 175 99
2.0473 2.0061 4.7064 195 167 94
2.0712 2.0065 4.7073 198 168 98
2.0953 2.0070 4.7085 186 163 83
1.9978 1.8924 4.4396 164 146 72
2.1292 1.9947 4.6795 25 15 0
2.1945 2.0116 4.7193 195 168 99
2.2181 2.0117 4.7195 196 167 97
2.2405 2.0106 4.7169 200 171 95
2.1941 1.9283 4.5240 117 98 29
2.2583 1.9446 4.5622 184 160 88
2.3364 1.9721 4.6266 188 162 88
2.3372 1.9534 4.5828 178 151 82
2.3618 1.9548 4.5860 60 31 0
2.2332 1.8306 4.2947 128 99 43
2.5683 2.0087 4.7124 191 166 99
2.5977 2.0132 4.7230 198 173 106
2.6143 2.0078 4.7105 185 160 94
2.6354 2.0060 4.7061 190 165 101
2.6625 2.0087 4.7124 193 168 104
2.6666 1.9941 4.6783 185 159 98
2.5065 1.8581 4.3591 111 104 75
2.6847 1.9730 4.6288 0 8 9
2.5956 1.8912 4.4369 59 86 103
2.7714 2.0022 4.6972 109 154 187
2.8085 2.0120 4.7201 97 154 197
2.8306 2.0109 4.7176 99 161 202
2.8546 2.0112 4.7183 97 158 202
2.8783 2.0112 4.7185 97 157 193
2.9010 2.0107 4.7171 100 159 199
2.9282 2.0131 4.7229 96 155 197
-2.9433 1.9838 4.7093 92 147 188
-2.9236 1.9864 4.7155 94 152 192
-2.8977 1.9848 4.7118 91 150 190
-2.8751 1.9855 4.7133 90 152 191
-2.8511 1.9852 4.7126 92 154 193
-2.8230 1.9820 4.7050 92 151 191
-2.8035 1.9848 4.7118 94 152 192
-2.7803 1.9851 4.7124 98 153 194
-2.7376 1.9713 4.6797 109 142 151
-2.7333 1.9852 4.7126 175 165 114
-2.7093 1.9848 4.7118 184 150 78
-2.6845 1.9840 4.7097 182 151 69
-2.6596 1.9830 4.7073 184 151 72
-2.6355 1.9825 4.7062 184 150 86
-2.6160 1.9856 4.7135 160 133 62
-2.5911 1.9846 4.7111 188 159 81
-2.5638 1.9817 4.7043 189 158 76
-2.5440 1.9846 4.7111 189 158 76
-2.5226 1.9863 4.7152 189 158 78
-2.4964 1.9841 4.7101 188 157 77
-2.4756 1.9864 4.7155 186 155 75
-2.4508 1.9854 4.7130 190 158 81
-2.4279 1.9859 4.7144 188 156 81
-2.4052 1.9866 4.7160 189 157 82
-2.3801 1.9854 4.7130 188 159 81
-2.3552 1.9843 4.7105 186 157 79
-2.3326 1.9851 4.7124 194 163 83
-2.2960 1.9738 4.6857 185 154 74
-2.2756 1.9765 4.6920 187 154 75
-2.2616 1.9848 4.7116 193 158 77
-2.2372 1.9840 4.7099 189 154 73
-2.2132 1.9836 4.7088 188 151 71
-2.1786 1.9736 4.6851 183 150 71
-2.1520 1.9707 4.6783 200 168 91
-2.1381 1.9795 4.6991 194 161 84
-2.1227 1.9871 4.7171 195 159 83
-2.0975 1.9856 4.7135 192 154 79
-2.0718 1.9835 4.7086 189 151 76
-2.0445 1.9799 4.7000 194 158 80
-2.0257 1.9845 4.7110 192 157 76
-2.0000 1.9823 4.7058 192 155 77
-1.9766 1.9825 4.7062 189 151 76
-1.9557 1.9851 4.7124 195 157 82
-1.9274 1.9803 4.7010 192 154 79
-1.9100 1.9866 4.7160 189 152 74
-1.8823 1.9823 4.7058 193 156 78
-1.8607 1.9844 4.7108 184 147 69
-1.8337 1.9807 4.7019 189 150 73
-1.8127 1.9834 4.7083 185 153 78
-1.7919 1.9864 4.7155 189 159 87
-1.7666 1.9845 4.7109 187 157 87
-1.7331 1.9731 4.6840 191 158 87
-1.6705 1.9279 4.5767 178 146 69
-1.6607 1.9432 4.6130 160 129 47
-1.6449 1.9518 4.6334 144 111 32
-1.6187 1.9482 4.6247 186 152 78
-1.5899 1.9413 4.6083 170 142 58
-1.5863 1.9654 4.6655 175 149 62
-1.5407 1.9374 4.5992 151 127 41
-1.5284 1.9510 4.6315 141 117 31
-1.5110 1.9585 4.6493 160 136 50
-1.4936 1.9662 4.6675 138 113 29
-1.4732 1.9702 4.6769 184 158 74
-1.4515 1.9724 4.6821 189 158 76
-1.4275 1.9716 4.6803 178 146 63
-1.3972 1.9618 4.6572 185 154 72
-1.3748 1.9631 4.6602 184 157 80
-1.3058 1.8968 4.5028 115 95 24
-1.3329 1.9701 4.6769 72 56 0
-1.3122 1.9741 4.6863 76 63 8
-1.2818 1.9635 4.6612 76 66 13
-1.2707 1.9825 4.7062 47 40 0
-1.2445 1.9784 4.6964 91 76 17
-1.2170 1.9717 4.6807 82 66 6
-1.1951 1.9743 4.6868 81 65 5
-1.1195 1.8863 4.4779 120 97 29
-1.1528 1.9821 4.7054 178 142 64
-1.1277 1.9794 4.6988 191 146 63
-1.1070 1.9843 4.7104 187 145 61
-1.0793 1.9768 4.6927 157 120 40
-1.0259 1.9208 4.5596 182 150 73
-0.9942 1.9037 4.5192 36 14 0
-0.9320 1.8261 4.3350 198 187 131
-0.9604 1.9265 4.5733 125 106 37
-0.9552 1.9627 4.6593 183 153 93
-0.9315 1.9619 4.6574 177 156 77
-0.9100 1.9657 4.6664 165 147 63
-0.8926 1.9789 4.6977 181 153 80
-0.8531 1.9424 4.6111 160 134 59
-0.8264 1.9339 4.5910 158 135 57
-0.8194 1.9725 4.6824 167 144 66
-0.7943 1.9682 4.6724 179 158 79
-0.7720 1.9709 4.6787 116 94 18
-0.7519 1.9796 4.6995 171 149 73
-0.7239 1.9674 4.6703 163 144 67
-0.6993 1.9638 4.6618 183 164 88
-0.6636 1.9280 4.5768 133 111 35
-0.6465 1.9454 4.6182 205 183 107
-0.6308 1.9682 4.6723 173 151 76
-0.6020 1.9506 4.6305 134 115 39
-0.5668 1.9102 4.5347 126 106 33
-0.5613 1.9705 4.6777 144 125 49
-0.5252 1.9239 4.5671 143 124 47
-0.5079 1.9449 4.6169 166 144 68
-0.4889 1.9613 4.6558 80 67 0
-0.4598 1.9368 4.5977 157 144 76
-0.4374 1.9394 4.6038 105 88 18
-0.4139 1.9371 4.5984 131 113 39
-0.3950 1.9576 4.6471 132 112 39
-0.3719 1.9580 4.6482 92 74 2
-0.3423 1.9226 4.5641 101 84 15
-0.3139 1.8892 4.4847 115 100 33
-0.3036 1.9677 4.6712 139 121 47
-0.2808 1.9716 4.6804 151 132 56
-0.2519 1.9294 4.5803 73 55 0
-0.2324 1.9580 4.6481 120 103 34
-0.2052 1.9206 4.5593 126 107 39
-0.1837 1.9341 4.5914 82 62 0
-0.1606 1.9331 4.5889 144 122 49
-0.1396 1.9597 4.6521 104 81 5
-0.1170 1.9710 4.6790 145 123 48
-0.0908 1.9121 4.5390 151 129 54
-0.0679 1.9060 4.5246 148 126 50
-0.0464 1.9558 4.6429 71 48 0
-0.0232 1.9564 4.6443 112 89 13
0.0000 1.9718 4.6808 102 78 4
0.0235 1.9775 4.6943 104 81 11
0.0465 1.9606 4.6543 80 59 0
0.0702 1.9719 4.6812 99 81 15
0.0933 1.9649 4.6645 124 106 42
0.1158 1.9513 4.6322 72 52 0
0.1394 1.9569 4.6455 88 67 12
0.1626 1.9564 4.6443 87 66 13
0.1843 1.9414 4.6087 87 66 9
0.2101 1.9667 4.6687 108 86 26
0.2322 1.9567 4.6450 96 75 12
0.2556 1.9575 4.6469 103 85 23
0.2777 1.9500 4.6290 82 66 6
0.2994 1.9404 4.6063 64 45 0
0.3224 1.9399 4.6052 95 75 25
0.3515 1.9741 4.6862 76 54 7
0.3730 1.9638 4.6619 107 87 37
0.3961 1.9631 4.6601 107 87 36
0.4182 1.9575 4.6469 71 54 0
0.4387 1.9452 4.6178 92 72 3
0.4652 1.9595 4.6515 132 112 41
0.4896 1.9640 4.6624 126 105 38
0.5123 1.9617 4.6569 168 148 85
0.5257 1.9257 4.5714 196 176 113
0.5382 1.8892 4.4847 107 88 20
0.5745 1.9362 4.5964 204 184 111
0.6070 1.9669 4.6692 158 136 60
0.6182 1.9290 4.5792 205 182 114
0.6251 1.8809 4.4649 113 90 23
0.6608 1.9198 4.5574 168 145 77
0.7026 1.9730 4.6837 177 154 84
0.7271 1.9762 4.6912 141 118 48
0.7500 1.9747 4.6877 135 112 44
0.7712 1.9690 4.6742 114 91 24
0.7925 1.9639 4.6621 190 167 100
0.8163 1.9649 4.6644 188 161 94
0.8402 1.9663 4.6679 186 159 90
0.8886 1.9702 4.6769 92 70 0
0.9132 1.9728 4.6831 192 169 99
0.9191 1.9359 4.5957 195 170 103
0.9488 1.9498 4.6285 194 167 96
0.9767 1.9593 4.6510 81 51 0
1.0039 1.9670 4.6693 184 147 59
1.0332 1.9782 4.6961 184 144 56
1.0585 1.9817 4.7044 182 144 59
1.0820 1.9817 4.7043 185 147 64
1.1036 1.9782 4.6961 185 147 66
1.1314 1.9858 4.7140 197 160 79
1.1493 1.9761 4.6910 197 160 79
1.1745 1.9791 4.6982 196 159 78
1.1944 1.9732 4.6841 198 161 72
1.2227 1.9809 4.7025 196 158 77
1.2479 1.9837 4.7092 203 163 76
1.2703 1.9819 4.7049 196 159 68
1.2964 1.9859 4.7144 193 154 77
1.3374 1.9768 4.6926 199 160 69
1.3611 1.9772 4.6936 204 165 74
1.3560 1.9364 4.5967 177 138 59
1.3464 1.8905 4.4879 137 108 42
1.3690 1.8908 4.4884 53 36 0
1.4037 1.9074 4.5280 151 134 82
1.4706 1.9667 4.6687 164 140 78
1.4807 1.9492 4.6272 185 155 83
1.4977 1.9412 4.6082 175 145 72
1.5477 1.9757 4.6901 196 176 103
1.5407 1.9374 4.5991 174 155 79
1.6031 1.9574 4.6467 204 182 107
1.6308 1.9628 4.6595 184 159 67
1.6577 1.9670 4.6695 199 167 90
1.6828 1.9691 4.6743 190 159 95
1.7105 1.9475 4.6230 37 22 0
1.7620 1.9793 4.6986 204 175 107
1.7895 1.9837 4.7092 205 171 97
1.8070 1.9771 4.6935 193 161 84
1.8342 1.9811 4.7030 195 165 92
1.8604 1.9840 4.7099 172 142 72
1.8627 1.9616 4.6566 195 165 93
1.9092 1.9858 4.7140 192 160 83
1.9321 1.9851 4.7124 189 157 72
1.9531 1.9825 4.7062 191 163 79
1.9917 1.9741 4.6864 190 164 105
2.0253 1.9840 4.7099 184 158 81
2.0466 1.9819 4.7047 200 171 95
2.0748 1.9864 4.7155 197 164 95
2.0909 1.9793 4.6987 190 163 84
1.9892 1.8621 4.4205 176 155 76
2.1383 1.9797 4.6996 28 21 0
2.1938 1.9874 4.7179 193 166 97
2.2153 1.9856 4.7135 195 167 94
2.2226 1.9711 4.6792 197 164 85
2.0963 1.8397 4.3672 152 133 67
2.3006 1.9579 4.6477 156 129 58
2.3675 1.9749 4.6882 189 163 88
2.3656 1.9539 4.6384 187 160 89
2.2704 1.8393 4.3662 114 84 30
2.2528 1.8076 4.2910 120 91 35
2.4439 1.9243 4.5680 203 178 111
2.5576 1.9768 4.6928 191 166 99
2.5917 1.9850 4.7121 193 168 102
2.6143 1.9843 4.7104 189 164 98
2.6350 1.9821 4.7054 195 170 106
2.6553 1.9797 4.6996 198 172 111
2.6833 1.9830 4.7075 177 151 92
2.6544 1.9447 4.6164 167 164 147
2.5901 1.8812 4.4656 139 170 198
2.7408 1.9736 4.6851 116 165 195
2.7800 1.9848 4.7118 121 167 201
2.8020 1.9838 4.7092 99 156 201
2.8263 1.9843 4.7104 94 159 201
2.8506 1.9848 4.7117 98 159 204
2.8749 1.9854 4.7130 95 157 196
2.9010 1.9871 4.7171 98 157 199
2.9205 1.9843 4.7104 97 156 198
-2.9418 1.9593 4.7069 97 155 195
-2.9175 1.9587 4.7057 95 153 193
-2.8955 1.9598 4.7082 95 154 194
-2.8715 1.9595 4.7075 95 154 194
-2.8443 1.9569 4.7014 94 153 193
-2.8210 1.9570 4.7016 93 152 192
-2.8005 1.9591 4.7066 93 151 191
-2.7741 1.9572 4.7019 96 154 194
-2.7266 1.9401 4.6609 117 146 152
-2.7293 1.9587 4.7057 174 162 110
-2.7026 1.9564 4.7001 181 147 75
-2.6828 1.9591 4.7066 180 149 69
-2.6557 1.9565 4.7003 180 147 70
-2.6104 1.9403 4.6614 192 156 94
-2.5993 1.9495 4.6835 175 148 77
-2.5840 1.9556 4.6982 187 157 84
-2.5611 1.9561 4.6992 194 163 83
-2.5386 1.9569 4.7012 191 160 80
-2.5191 1.9599 4.7085 189 158 78
-2.4931 1.9580 4.7039 190 159 77
-2.4695 1.9580 4.7038 189 158 76
-2.4464 1.9583 4.7047 192 161 79
-2.4226 1.9581 4.7041 190 159 79
-2.3989 1.9580 4.7038 193 162 80
-2.3757 1.9582 4.7043 188 157 75
-2.3512 1.9574 4.7024 192 161 79
-2.3255 1.9555 4.6979 191 159 76
-2.3011 1.9547 4.6961 186 154 71
-2.2787 1.9557 4.6984 187 152 70
-2.2588 1.9588 4.7059 191 156 72
-2.2355 1.9590 4.7063 189 153 69
-2.2096 1.9569 4.7014 188 152 68
-2.1671 1.9399 4.6605 185 152 73
-2.1402 1.9580 4.7038 201 164 84
-2.1143 1.9557 4.6985 201 164 83
-2.0945 1.9591 4.7066 195 157 74
-2.0688 1.9572 4.7019 192 154 73
-2.0428 1.9548 4.6961 197 160 80
-2.0197 1.9552 4.6971 193 156 78
-1.9973 1.9561 4.6995 195 159 83
-1.9728 1.9552 4.6973 187 151 77
-1.9506 1.9564 4.7001 195 157 82
-1.9251 1.9544 4.6953 189 151 76
-1.9052 1.9582 4.7043 194 155 80
-1.8812 1.9576 4.7031 191 152 75
-1.8553 1.9552 4.6971 193 151 75
-1.8324 1.9557 4.6985 193 151 75
-1.8090 1.9558 4.6986 191 154 73
-1.7860 1.9564 4.7000 192 157 76
-1.7635 1.9575 4.7026 193 157 79
-1.7373 1.9544 4.6953 194 157 77
-1.7067 1.9463 4.6758 187 151 67
-1.6775 1.9396 4.6596 189 153 65
-1.6551 1.9407 4.6623 191 155 67
-1.6372 1.9471 4.6776 183 145 62
-1.6154 1.9490 4.6822 194 156 73
-1.5952 1.9529 4.6917 195 157 72
-1.5654 1.9451 4.6730 189 153 67
-1.5395 1.9419 4.6653 193 157 73
-1.5215 1.9487 4.6815 190 154 70
-1.4957 1.9456 4.6741 187 151 67
-1.4821 1.9585 4.7050 193 155 74
-1.4567 1.9559 4.6989 192 154 73
-1.4307 1.9526 4.6909 198 154 67
-1.4029 1.9465 4.6762 197 156 68
-1.3777 1.9440 4.6702 186 148 65
-1.3011 1.8675 4.4866 122 89 12
-1.3343 1.9488 4.6818 105 76 6
-1.3169 1.9577 4.7031 106 82 18
-1.2872 1.9484 4.6808 103 83 24
-1.2673 1.9538 4.6939 87 67 8
-1.2418 1.9506 4.6862 83 65 1
-1.2186 1.9509 4.6868 74 56 0
-1.1956 1.9517 4.6887 84 65 0
-1.1167 1.8593 4.4667 130 102 29
-1.1468 1.9483 4.6806 181 144 64
-1.1264 1.9536 4.6933 183 138 55
-1.1028 1.9533 4.6926 191 146 63
-1.0809 1.9561 4.6995 181 140 60
-1.0183 1.8838 4.5256 182 150 63
-0.9972 1.8868 4.5329 67 44 0
-0.9261 1.7930 4.3076 162 149 94
-0.9678 1.9183 4.6086 129 109 38
-0.9616 1.9526 4.6909 179 151 77
-0.9372 1.9505 4.6859 152 130 54
-0.9011 1.9234 4.6209 205 186 117
-0.8778 1.9231 4.6200 194 171 95
-0.8502 1.9130 4.5957 126 103 23
-0.8267 1.9118 4.5930 151 128 48
-0.8145 1.9374 4.6544 104 83 2
-0.7881 1.9298 4.6361 144 123 42
-0.7721 1.9477 4.6791 122 101 22
-0.7338 1.9090 4.5861 139 118 39
-0.7206 1.9353 4.6493 178 159 80
-0.6954 1.9298 4.6361 151 132 53
-0.6684 1.9189 4.6100 146 124 51
-0.6540 1.9445 4.6715 127 104 34
-0.6209 1.9144 4.5992 169 149 80
-0.6023 1.9284 4.6327 133 112 45
-0.5800 1.9313 4.6399 53 34 0
-0.5569 1.9316 4.6404 91 72 4
-0.5306 1.9205 4.6138 74 55 0
-0.5010 1.8957 4.5543 79 60 0
-0.4926 1.9529 4.6918 125 110 51
-0.4526 1.8841 4.5264 66 52 0
-0.4372 1.9156 4.6021 121 104 35
-0.4195 1.9403 4.6614 136 117 41
-0.3914 1.9167 4.6048 98 77 0
-0.3703 1.9266 4.6286 132 110 34
-0.3498 1.9413 4.6639 114 94 21
-0.3236 1.9242 4.6226 137 118 49
-0.3001 1.9217 4.6168 87 67 0
-0.2763 1.9166 4.6044 133 113 42
-0.2542 1.9236 4.6212 86 66 0
-0.2327 1.9374 4.6543 161 142 73
-0.2090 1.9332 4.6443 149 129 56
-0.1846 1.9209 4.6147 126 104 28
-0.1616 1.9219 4.6171 125 103 20
-0.1396 1.9365 4.6524 152 130 44
-0.1174 1.9543 4.6950 157 134 54
-0.0912 1.8975 4.5587 149 124 44
-0.0677 1.8800 4.5164 161 135 51
-0.0466 1.9397 4.6600 116 88 4
-0.0233 1.9361 4.6514 132 105 18
0.0000 1.9519 4.6893 134 106 22
0.0234 1.9463 4.6757 130 102 19
0.0465 1.9373 4.6542 136 107 29
0.0699 1.9393 4.6590 122 101 22
0.0931 1.9367 4.6527 95 76 0
0.1151 1.9164 4.6040 112 90 17
0.1404 1.9479 4.6797 120 97 27
0.1640 1.9510 4.6871 115 92 22
0.1853 1.9287 4.6336 104 82 9
0.2082 1.9258 4.6266 99 75 1
0.2335 1.9442 4.6708 140 117 41
0.2553 1.9320 4.6415 130 107 27
0.2803 1.9445 4.6716 111 88 10
0.3021 1.9345 4.6474 140 116 42
0.3240 1.9269 4.6291 103 78 11
0.3511 1.9488 4.6818 115 90 24
0.3708 1.9293 4.6349 122 99 32
0.3956 1.9374 4.6545 107 84 17
0.4192 1.9387 4.6576 108 88 19
0.4389 1.9229 4.6196 117 91 7
0.4653 1.9370 4.6535 134 108 23
0.4819 1.9104 4.5895 132 107 27
0.5071 1.9188 4.6098 180 154 80
0.5380 1.9474 4.6785 183 158 91
0.5733 1.9092 4.5867 101 76 9
0.5952 1.9058 4.5785 179 152 83
0.6222 1.9184 4.6087 161 136 70
0.6449 1.9175 4.6067 178 153 87
0.6763 1.9414 4.6640 161 136 70
0.7215 1.9376 4.6549 166 141 74
0.7476 1.9449 4.6725 148 123 56
0.7707 1.9442 4.6707 166 141 75
0.7966 1.9505 4.6859 180 155 91
0.8163 1.9416 4.6645 197 172 105
0.8359 1.9329 4.6436 177 153 81
0.8657 1.9479 4.6796 196 174 98
0.8910 1.9519 4.6893 177 158 81
0.9053 1.9325 4.6426 184 162 89
0.9336 1.9430 4.6678 164 140 68
0.9574 1.9441 4.6704 201 174 97
0.9706 1.9239 4.6219 156 125 45
1.0032 1.9422 4.6660 196 161 71
1.0278 1.9446 4.6717 197 160 71
1.0515 1.9453 4.6735 183 146 58
1.0671 1.9312 4.6396 179 143 59
1.1024 1.9526 4.6909 181 144 63
1.1298 1.9596 4.7077 190 153 73
1.1488 1.9518 4.6890 170 133 53
1.1654 1.9404 4.6617 171 136 54
1.1891 1.9410 4.6630 170 138 51
1.2106 1.9382 4.6563 165 133 72
1.2385 1.9454 4.6736 157 128 58
1.2575 1.9387 4.6576 152 128 54
1.2795 1.9367 4.6527 161 138 68
1.2630 1.8776 4.5108 137 117 31
1.2788 1.8677 4.4870 136 114 39
1.2943 1.8577 4.4631 113 89 29
1.3484 1.9026 4.5708 132 98 37
1.3688 1.8992 4.5626 93 64 6
1.3917 1.8993 4.5630 102 85 31
1.3991 1.8786 4.5131 92 77 20
1.4732 1.9467 4.6768 107 86 21
1.4708 1.9132 4.5963 111 83 10
1.4721 1.8855 4.5297 86 62 0
1.5018 1.8943 4.5508 136 117 48
1.5630 1.9421 4.6658 128 105 55
1.5523 1.9005 4.5656 111 88 36
1.5556 1.8768 4.5089 131 108 58
1.5740 1.8720 4.4973 112 85 40
1.5870 1.8608 4.4704 157 128 68
1.6193 1.8723 4.4981 168 139 69
1.6861 1.9228 4.6194 205 180 123
1.7026 1.9154 4.6015 21 0 0
1.7305 1.9209 4.6148 193 163 101
1.7889 1.9596 4.7077 176 146 74
1.8054 1.9519 4.6893 187 159 86
1.8217 1.9443 4.6711 188 159 89
1.8561 1.9559 4.6989 180 152 87
1.8712 1.9472 4.6779 191 163 98
1.8959 1.9486 4.6812 185 156 88
1.9262 1.9556 4.6980 191 161 88
1.9482 1.9541 4.6945 190 162 78
1.9442 1.9268 4.6290 200 172 109
1.9845 1.9436 4.6694 186 157 99
2.0215 1.9569 4.7012 192 165 88
2.0417 1.9537 4.6937 205 173 98
2.0683 1.9566 4.7006 200 165 97
2.0908 1.9557 4.6985 190 161 83
1.9984 1.8485 4.4408 189 166 86
2.1216 1.9410 4.6629 33 23 0
2.1842 1.9552 4.6973 190 163 92
2.2107 1.9579 4.7036 192 164 90
2.2232 1.9482 4.6804 200 167 88
2.1341 1.8507 4.4461 65 45 0
2.2991 1.9333 4.6446 131 104 35
2.3321 1.9415 4.6642 203 176 105
2.2587 1.8617 4.4726 184 158 84
2.3527 1.9202 4.6132 179 152 81
2.4187 1.9549 4.6964 162 134 71
2.4253 1.9229 4.6195 84 55 0
2.5481 1.9462 4.6755 200 173 106
2.5873 1.9581 4.7042 197 169 104
2.6067 1.9551 4.6968 192 164 99
2.6366 1.9598 4.7082 195 167 104
2.6582 1.9583 4.7047 201 173 110
2.6712 1.9507 4.6864 185 157 94
2.6888 1.9465 4.6762 142 144 123
2.7233 1.9544 4.6953 124 161 188
2.7470 1.9546 4.6958 110 165 196
2.7741 1.9572 4.7019 105 155 190
2.7937 1.9544 4.6953 101 158 203
2.8217 1.9575 4.7028 94 157 198
2.8465 1.9585 4.7050 102 159 204
2.8652 1.9552 4.6971 97 157 194
2.8941 1.9588 4.7058 98 156 196
2.9183 1.9593 4.7069 97 156 198
-2.9380 1.9332 4.7009 97 154 197
-2.9133 1.9324 4.6989 92 149 192
-2.8905 1.9329 4.7000 93 152 192
-2.8654 1.9318 4.6974 92 151 191
-2.8433 1.9327 4.6996 94 153 193
-2.8184 1.9317 4.6973 95 154 194
-2.7954 1.9321 4.6981 93 151 189
-2.7668 1.9286 4.6895 98 156 194
-2.7211 1.9129 4.6514 129 153 153
-2.7213 1.9296 4.6920 178 163 106
-2.6991 1.9304 4.6940 187 153 81
-2.6727 1.9283 4.6890 180 151 75
-2.6513 1.9298 4.6926 182 149 72
-2.6189 1.9233 4.6766 199 161 99
-2.5740 1.9073 4.6379 156 127 59
-2.5799 1.9290 4.6906 187 157 85
-2.5581 1.9303 4.6938 190 160 87
-2.5340 1.9298 4.6926 188 159 83
-2.5122 1.9311 4.6958 186 157 81
-2.4859 1.9289 4.6903 188 159 81
-2.4637 1.9299 4.6928 184 155 75
-2.4407 1.9303 4.6937 186 157 77
-2.4173 1.9304 4.6939 184 156 73
-2.3947 1.9310 4.6955 188 160 77
-2.3713 1.9311 4.6956 187 156 74
-2.3486 1.9317 4.6972 191 158 77
-2.3209 1.9282 4.6886 189 156 75
-2.3004 1.9307 4.6947 186 153 72
-2.2756 1.9295 4.6919 190 155 73
-2.2538 1.9310 4.6953 191 156 74
-2.2325 1.9329 4.7000 189 152 71
-2.2062 1.9304 4.6940 191 154 73
-2.1691 1.9184 4.6648 182 150 77
-2.1440 1.9168 4.6608 182 150 75
-2.1356 1.9303 4.6937 188 155 74
-2.1074 1.9260 4.6832 194 159 75
-2.0894 1.9310 4.6953 191 157 70
-2.0646 1.9297 4.6922 189 153 69
-2.0398 1.9284 4.6891 193 157 79
-2.0163 1.9284 4.6891 188 152 78
-1.9897 1.9253 4.6816 189 158 76
-1.9637 1.9228 4.6756 183 152 69
-1.9442 1.9266 4.6848 189 157 74
-1.9246 1.9305 4.6942 193 158 74
-1.8999 1.9292 4.6911 193 157 73
-1.8796 1.9324 4.6989 188 152 66
-1.8541 1.9303 4.6938 191 155 69
-1.8301 1.9298 4.6926 193 155 70
-1.8081 1.9314 4.6964 189 154 70
-1.7816 1.9281 4.6884 190 157 76
-1.7591 1.9291 4.6909 190 157 78
-1.7371 1.9307 4.6947 193 158 77
-1.7041 1.9200 4.6687 185 151 64
-1.6916 1.9324 4.6989 189 154 64
-1.6627 1.9261 4.6835 189 154 64
-1.6397 1.9266 4.6848 192 156 70
-1.6172 1.9277 4.6875 184 147 56
-1.5910 1.9245 4.6796 196 157 64
-1.5639 1.9198 4.6683 183 147 53
-1.5458 1.9264 4.6842 195 158 67
-1.5219 1.9257 4.6826 194 157 66
-1.5022 1.9306 4.6945 192 155 64
-1.4768 1.9280 4.6882 188 151 60
-1.4552 1.9305 4.6942 190 153 64
-1.4309 1.9294 4.6915 189 154 62
-1.4055 1.9268 4.6851 194 160 70
-1.3829 1.9279 4.6879 189 162 75
-1.3014 1.8455 4.4877 107 84 4
-1.3341 1.9250 4.6809 104 86 12
-1.3141 1.9300 4.6931 101 86 17
-1.2903 1.9295 4.6919 95 84 18
-1.2637 1.9248 4.6804 81 72 7
-1.2422 1.9278 4.6877 89 78 12
-1.2204 1.9303 4.6938 83 70 2
-1.1335 1.8281 4.4451 111 93 19
-1.1627 1.9127 4.6509 185 160 76
-1.1461 1.9238 4.6779 178 145 50
-1.1265 1.9303 4.6938 179 144 40
-1.0996 1.9243 4.6790 187 153 46
-1.0784 1.9282 4.6886 181 150 42
-1.0262 1.8756 4.5607 191 157 67
-0.9781 1.8283 4.4458 75 51 0
-0.9614 1.8827 4.5780 145 121 57
-0.9195 1.8908 4.5977 143 125 41
-0.8912 1.8794 4.5700 146 129 59
-0.8514 1.8428 4.4809 188 165 95
-0.8559 1.9026 4.6263 148 125 49
-0.8205 1.8745 4.5581 198 176 100
-0.7994 1.8787 4.5683 120 98 22
-0.7889 1.9083 4.6404 151 129 53
-0.7529 1.8766 4.5631 193 171 95
-0.7488 1.9246 4.6799 118 96 21
-0.7180 1.9051 4.6324 133 114 38
-0.6962 1.9087 4.6412 127 108 32
-0.6794 1.9270 4.6856 94 71 4
-0.6475 1.9019 4.6247 149 125 63
-0.6329 1.9282 4.6885 84 62 4
-0.6032 1.9083 4.6403 63 41 0
-0.5848 1.9241 4.6786 156 135 80
-0.5588 1.9152 4.6570 71 52 0
-0.5295 1.8937 4.6047 84 65 9
-0.5044 1.8857 4.5853 131 114 58
-0.4892 1.9161 4.6591 78 61 17
-0.4448 1.8291 4.4475 142 125 79
-0.4337 1.8773 4.5647 121 102 43
-0.4106 1.8764 4.5626 117 97 26
-0.3955 1.9134 4.6527 163 140 64
-0.3700 1.9022 4.6255 153 130 54
-0.3453 1.8935 4.6043 116 92 22
-0.3230 1.8977 4.6144 132 108 44
-0.2945 1.8632 4.5306 98 75 7
-0.2564 1.9170 4.6614 124 101 31
-0.2346 1.9299 4.6928 164 141 71
-0.2074 1.8951 4.6082 106 84 9
-0.1872 1.9247 4.6801 161 138 60
-0.1632 1.9181 4.6642 129 107 24
-0.1384 1.8975 4.6139 153 129 43
-0.1161 1.9100 4.6443 176 153 73
-0.0918 1.8876 4.5900 154 128 51
-0.0685 1.8767 4.5634 179 153 69
-0.0465 1.9135 4.6528 147 117 31
-0.0233 1.9174 4.6623 150 118 31
0.0000 1.9204 4.6696 139 108 18
0.0233 1.9189 4.6660 147 115 28
0.0468 1.9249 4.6805 158 126 41
0.0698 1.9144 4.6552 145 119 34
0.0931 1.9139 4.6540 82 58 0
0.1168 1.9213 4.6719 137 112 30
0.1391 1.9068 4.6367 112 87 5
0.1612 1.8944 4.6065 163 136 55
0.1863 1.9156 4.6579 151 124 43
0.2098 1.9178 4.6633 160 134 50
0.2321 1.9087 4.6411 143 115 31
0.2546 1.9034 4.6284 149 122 31
0.2757 1.8895 4.5945 155 128 39
0.3000 1.8979 4.6150 156 128 44
0.3182 1.8691 4.5450 152 124 41
0.3482 1.9091 4.6421 146 117 39
0.3696 1.9000 4.6200 125 98 21
0.3894 1.8839 4.5810 118 93 13
0.4173 1.9068 4.6365 125 102 22
0.4405 1.9070 4.6371 134 107 18
0.4618 1.8992 4.6181 171 144 55
0.4765 1.8662 4.5380 114 88 4
0.4987 1.8646 4.5339 201 175 100
0.5323 1.9037 4.6290 166 142 72
0.5470 1.8745 4.5579 187 162 95
0.5852 1.9253 4.6815 152 127 60
0.5998 1.8974 4.6137 201 174 105
0.6247 1.9030 4.6275 179 155 83
0.6475 1.9021 4.6251 177 155 82
0.6683 1.8954 4.6090 180 158 83
0.6840 1.8752 4.5598 203 181 105
0.7260 1.9263 4.6841 181 159 83
0.7626 1.9008 4.6219 176 154 79
0.8088 1.9008 4.6220 184 161 93
0.8623 1.9168 4.6609 190 170 97
0.9236 1.8992 4.6181 185 158 87
0.9866 1.9321 4.6981 188 156 73
0.9993 1.9114 4.6478 188 153 63
1.0291 1.9238 4.6779 161 126 36
1.0557 1.9296 4.6921 172 136 48
1.0727 1.9181 4.6640 165 129 45
1.0979 1.9214 4.6720 182 147 65
1.1213 1.9214 4.6720 202 167 86
1.1511 1.9322 4.6984 190 155 74
1.1697 1.9242 4.6788 199 164 82
1.1911 1.9210 4.6710 194 158 74
1.2171 1.9250 4.6810 199 162 92
1.2373 1.9202 4.6691 195 166 88
1.2154 1.8176 4.4197 205 186 117
1.2938 1.9003 4.6208 65 47 0
1.3117 1.8927 4.6024 85 65 15
1.3399 1.9001 4.6203 90 64 39
1.3704 1.9104 4.6453 61 31 0
1.3984 1.9170 4.6614 58 35 0
1.4083 1.8989 4.6174 36 21 0
1.4410 1.9116 4.6482 60 48 0
1.4550 1.8996 4.6191 88 73 18
1.4559 1.8711 4.5497 89 68 11
1.4875 1.8823 4.5769 66 46 0
1.4820 1.8469 4.4910 129 112 68
1.5336 1.8827 4.5780 62 43 0
1.5333 1.8546 4.5096 82 61 18
1.5759 1.8785 4.5677 81 66 11
1.5782 1.8544 4.5091 72 60 0
1.6579 1.9205 4.6700 83 62 5
1.6273 1.8589 4.5202 113 89 43
1.6259 1.8072 4.3943 66 45 0
1.7768 1.9229 4.6757 198 166 89
1.8036 1.9266 4.6848 199 170 92
1.8184 1.9175 4.6625 197 169 95
1.8516 1.9278 4.6876 193 164 98
1.8651 1.9175 4.6627 202 172 108
1.8918 1.9210 4.6712 186 155 90
1.9245 1.9303 4.6938 191 158 87
1.9440 1.9264 4.6843 199 168 86
1.9356 1.8953 4.6087 196 166 104
1.9783 1.9143 4.6548 199 170 112
2.0163 1.9283 4.6890 204 177 100
2.0435 1.9319 4.6977 197 165 92
2.0548 1.9205 4.6700 195 158 88
2.0791 1.9214 4.6721 199 168 88
2.0041 1.8315 4.4534 197 170 89
2.0951 1.8936 4.6045 41 30 0
2.1753 1.9239 4.6781 195 169 95
2.2068 1.9309 4.6953 193 167 90
2.1267 1.8221 4.4307 54 34 0
2.2912 1.9036 4.6288 124 97 28
2.3193 1.9076 4.6385 199 172 103
2.2079 1.7980 4.3720 190 163 92
2.2261 1.7951 4.3650 182 155 86
2.3421 1.8702 4.5477 181 154 87
2.3865 1.8874 4.5895 204 176 113
2.4090 1.8870 4.5886 91 63 0
2.4355 1.8722 4.5524 193 166 97
2.5307 1.9273 4.6864 204 177 108
2.5414 1.9177 4.6632 196 169 102
2.5797 1.9289 4.6903 198 170 105
2.5947 1.9227 4.6752 198 170 107
2.6285 1.9303 4.6938 198 170 107
2.6521 1.9304 4.6940 198 170 105
2.6632 1.9215 4.6722 188 160 95
2.6867 1.9215 4.6725 164 166 144
2.7147 1.9248 4.6804 124 166 191
2.7464 1.9307 4.6947 96 156 190
2.7702 1.9309 4.6953 107 161 199
2.7907 1.9289 4.6902 100 156 203
2.8125 1.9277 4.6875 99 158 198
2.8428 1.9324 4.6989 106 159 203
2.8649 1.9314 4.6965 103 158 197
2.8891 1.9319 4.6977 102 160 200
2.9092 1.9297 4.6923 99 156 199
-2.9319 1.9057 4.6911 93 152 194
-2.9049 1.9034 4.6853 95 154 196
-2.8843 1.9052 4.6898 95 152 195
-2.8601 1.9048 4.6887 97 155 195
-2.8351 1.9037 4.6861 98 156 196
-2.8137 1.9051 4.6895 96 154 192
-2.7888 1.9041 4.6870 96 156 193
-2.7656 1.9042 4.6874 95 155 192
-2.7212 1.8897 4.6516 132 153 148
-2.7149 1.9016 4.6808 178 159 100
-2.6935 1.9030 4.6844 182 148 76
-2.6715 1.9040 4.6868 180 152 78
-2.6454 1.9021 4.6821 188 155 78
-2.6140 1.8963 4.6679 202 162 100
-2.5715 1.8823 4.6333 161 132 62
-2.5752 1.9021 4.6821 196 166 94
-2.5549 1.9044 4.6879 192 159 90
-2.5286 1.9023 4.6826 190 157 88
-2.5097 1.9057 4.6911 189 156 85
-2.4846 1.9045 4.6879 190 157 86
-2.4630 1.9059 4.6914 190 158 85
-2.4377 1.9045 4.6879 190 158 83
-2.4124 1.9030 4.6843 192 160 83
-2.3860 1.9006 4.6785 187 156 76
-2.3651 1.9026 4.6834 196 163 86
-2.3405 1.9016 4.6810 189 156 79
-2.3173 1.9018 4.6814 199 166 89
-2.2894 1.8981 4.6722 180 147 70
-2.2695 1.9010 4.6793 189 156 79
-2.2458 1.9007 4.6787 187 151 73
-2.2247 1.9027 4.6835 187 151 73
-2.2012 1.9026 4.6833 195 159 81
-2.1594 1.8866 4.6439 184 155 85
-2.1437 1.8932 4.6603 187 159 86
-2.1322 1.9037 4.6861 189 160 82
-2.1101 1.9050 4.6892 193 162 79
-2.0729 1.8924 4.6582 189 158 75
-2.0579 1.9001 4.6770 190 159 77
-2.0324 1.8981 4.6722 178 149 73
-2.0011 1.8906 4.6537 190 160 88
-1.9883 1.9005 4.6782 184 158 74
-1.9556 1.8916 4.6562 178 152 67
-1.9339 1.8931 4.6599 182 154 70
-1.9178 1.9002 4.6775 191 160 77
-1.8914 1.8972 4.6701 181 149 64
-1.8719 1.9012 4.6798 187 155 70
-1.8388 1.8912 4.6552 190 158 73
-1.8215 1.8974 4.6706 185 155 69
-1.7972 1.8964 4.6681 198 162 76
-1.7748 1.8974 4.6704 192 154 69
-1.7427 1.8879 4.6471 183 145 60
-1.7257 1.8948 4.6641 204 164 77
-1.6918 1.8830 4.6352 199 158 66
-1.6846 1.9010 4.6794 195 153 55
-1.6591 1.8986 4.6735 191 147 48
-1.6295 1.8913 4.6556 201 157 62
-1.6086 1.8941 4.6625 199 154 53
-1.5806 1.8885 4.6487 201 156 55
-1.5599 1.8917 4.6564 189 144 43
-1.5418 1.8981 4.6722 200 155 54
-1.5194 1.8992 4.6749 199 156 54
-1.4890 1.8903 4.6531 192 148 49
-1.4669 1.8918 4.6567 196 152 53
-1.4456 1.8944 4.6633 192 150 50
-1.4221 1.8941 4.6625 189 150 49
-1.3993 1.8948 4.6642 189 153 56
-1.3764 1.8955 4.6659 185 152 59
-1.2912 1.8088 4.4523 130 103 16
-1.3316 1.8981 4.6722 102 80 0
-1.3072 1.8966 4.6685 102 83 4
-1.2877 1.9024 4.6827 102 84 10
-1.2615 1.8982 4.6724 77 61 0
-1.2411 1.9026 4.6834 89 71 9
-1.1927 1.8636 4.5873 88 64 2
-1.1731 1.8690 4.6005 200 168 95
-1.1617 1.8878 4.6469 189 151 66
-1.1443 1.8975 4.6708 195 152 58
-1.1206 1.8968 4.6691 189 146 44
-1.1002 1.9020 4.6818 180 137 32
-1.0766 1.9016 4.6809 174 133 25
-1.0491 1.8943 4.6628 183 146 42
-0.9917 1.8313 4.5078 188 161 90
-0.9607 1.8152 4.4682 108 89 23
-0.9344 1.8517 4.5580 153 126 49
-0.9069 1.8421 4.5345 159 140 63
-0.8918 1.8579 4.5733 128 111 55
-0.8756 1.8722 4.6086 131 111 40
-0.8287 1.8702 4.6037 152 132 61
-0.8046 1.8679 4.5978 159 139 68
-0.7857 1.8777 4.6220 169 149 78
-0.7676 1.8899 4.6521 179 159 90
-0.7390 1.8764 4.6188 174 154 85
-0.7131 1.8690 4.6005 154 131 63
-0.6871 1.8609 4.5806 132 109 41
-0.6750 1.8912 4.6553 194 170 98
-0.6478 1.8798 4.6272 170 147 77
-0.6179 1.8593 4.5768 148 128 59
-0.5921 1.8504 4.5548 159 138 71
-0.5759 1.8717 4.6073 178 158 95
-0.5560 1.8822 4.6330 184 166 102
-0.5375 1.8988 4.6740 90 75 10
-0.5052 1.8659 4.5930 110 95 30
-0.4662 1.8038 4.4402 122 106 55
-0.4313 1.7522 4.3130 192 177 122
-0.4324 1.8491 4.5515 123 105 39
-0.4156 1.8761 4.6180 140 118 42
-0.3963 1.8941 4.6623 142 120 37
-0.3745 1.9016 4.6809 156 131 49
-0.3494 1.8928 4.6591 149 126 50
-0.3195 1.8541 4.5640 186 162 90
-0.3000 1.8748 4.6149 128 106 33
-0.2745 1.8588 4.5756 194 170 98
-0.2518 1.8598 4.5780 136 112 40
-0.2319 1.8844 4.6385 171 147 75
-0.2040 1.8420 4.5342 178 151 80
-0.1828 1.8561 4.5689 126 99 28
-0.1607 1.8651 4.5909 142 116 42
-0.1382 1.8718 4.6076 163 137 62
-0.1155 1.8776 4.6218 178 156 83
-0.0932 1.8924 4.6583 190 168 95
-0.0693 1.8780 4.6229 167 141 66
-0.0458 1.8624 4.5843 189 162 83
-0.0232 1.8870 4.6448 118 90 7
0.0000 1.8905 4.6536 131 100 17
0.0232 1.8877 4.6466 157 126 44
0.0465 1.8887 4.6491 139 108 28
0.0698 1.8896 4.6514 161 133 49
0.0931 1.8917 4.6564 136 108 24
0.1172 1.9044 4.6879 153 125 42
0.1390 1.8822 4.6332 167 139 56
0.1622 1.8824 4.6336 167 139 56
0.1831 1.8597 4.5776 150 119 37
0.2074 1.8726 4.6094 163 132 49
0.2327 1.8909 4.6545 164 133 50
0.2549 1.8825 4.6338 173 143 55
0.2786 1.8863 4.6432 181 151 63
0.3029 1.8929 4.6593 182 150 65
0.3274 1.9001 4.6771 166 133 52
0.3429 1.8574 4.5720 144 113 33
0.3747 1.9028 4.6837 159 130 50
0.3981 1.9025 4.6830 163 136 55
0.4166 1.8804 4.6286 123 98 16
0.4401 1.8818 4.6321 148 121 42
0.4619 1.8764 4.6189 170 143 66
0.4869 1.8837 4.6369 149 123 49
0.5304 1.8737 4.6122 191 168 100
0.5516 1.8674 4.5967 197 174 104
0.5794 1.8831 4.6353 181 158 88
0.6096 1.9051 4.6895 178 156 83
0.6520 1.8920 4.6571 169 149 76
0.6998 1.8953 4.6654 187 168 92
0.7474 1.8977 4.6713 147 128 52
0.7872 1.8811 4.6303 204 184 111
0.8437 1.9041 4.6870 166 145 78
0.8624 1.8938 4.6616 187 167 98
0.8794 1.8803 4.6284 144 123 56
0.9206 1.8699 4.6028 156 128 63
0.9570 1.8966 4.6685 195 162 91
0.9833 1.9023 4.6826 181 145 67
1.0038 1.8966 4.6686 190 156 67
1.0253 1.8932 4.6603 177 143 53
1.0502 1.8962 4.6676 178 144 55
1.0702 1.8903 4.6530 181 146 62
1.0972 1.8968 4.6690 192 155 74
1.1204 1.8966 4.6685 194 157 76
1.1457 1.8997 4.6763 201 164 83
1.1708 1.9026 4.6832 203 166 85
1.1891 1.8944 4.6631 194 156 73
1.2145 1.8976 4.6711 197 161 77
1.1773 1.8048 4.4426 109 78 13
1.2088 1.8187 4.4769 159 139 70
1.2272 1.8129 4.4626 18 0 0
1.2478 1.8104 4.4564 144 124 100
1.3146 1.8739 4.6126 19 2 0
1.3345 1.8695 4.6018 18 0 0
1.3361 1.8400 4.5291 180 162 142
1.3621 1.8446 4.5405 188 176 152
1.3414 1.7866 4.3979 54 47 21
1.3912 1.8232 4.4878 13 6 0
1.3877 1.7896 4.4053 52 43 12
1.4010 1.7786 4.3780 168 157 129
1.4969 1.8711 4.6058 17 4 0
1.5264 1.8791 4.6254 24 11 2
1.4765 1.7905 4.4075 13 0 0
1.4663 1.7520 4.3126 48 31 21
1.5365 1.8093 4.4538 182 173 144
1.5266 1.7719 4.3617 129 122 68
1.6256 1.8603 4.5793 14 1 0
1.6031 1.8091 4.4532 37 22 0
1.6676 1.8560 4.5687 200 187 91
1.6266 1.7860 4.3963 106 90 31
1.7764 1.8991 4.6746 198 162 78
1.8038 1.9034 4.6853 200 166 79
1.8215 1.8974 4.6704 194 162 79
1.8437 1.8962 4.6675 189 157 82
1.8680 1.8738 4.6124 196 164 91
1.9219 1.9043 4.6876 196 163 86
1.9455 1.9045 4.6879 195 163 78
1.9270 1.8639 4.5880 198 167 103
1.9612 1.8746 4.6145 169 140 82
2.0101 1.8991 4.6748 195 168 91
2.0374 1.9027 4.6837 199 167 94
2.0572 1.8994 4.6755 197 160 90
2.0801 1.8990 4.6744 197 164 85
2.0043 1.8094 4.4539 200 172 89
2.0830 1.8598 4.5780 41 30 0
1.9833 1.7515 4.3115 194 166 103
2.1639 1.8905 4.6536 189 163 88
2.1988 1.9005 4.6782 195 170 90
2.2170 1.8961 4.6673 199 166 87
2.0954 1.7734 4.3654 65 44 0
2.2916 1.8807 4.6295 121 94 23
2.3179 1.8833 4.6358 203 176 107
2.3237 1.8693 4.6014 199 172 103
2.2222 1.7701 4.3572 171 144 75
2.2868 1.8039 4.4404 190 163 94
2.4335 1.9012 4.6798 197 170 101
2.3861 1.8464 4.5449 92 65 0
2.4402 1.8529 4.5611 180 153 84
2.5414 1.8944 4.6632 192 165 98
2.5740 1.9013 4.6801 196 168 103
2.5960 1.9002 4.6775 198 170 107
2.6270 1.9057 4.6911 198 170 105
2.6436 1.9008 4.6790 195 167 102
2.6652 1.8996 4.6758 188 161 94
2.6833 1.8958 4.6667 164 162 137
2.7180 1.9037 4.6861 116 156 181
2.7373 1.9009 4.6791 96 160 195
2.7662 1.9047 4.6884 105 163 201
2.7883 1.9038 4.6862 101 158 203
2.8116 1.9037 4.6860 100 158 195
2.8378 1.9055 4.6906 105 156 199
2.8573 1.9029 4.6841 104 159 200
2.8824 1.9040 4.6868 105 162 205
2.9033 1.9024 4.6827 102 159 202
-2.9258 1.8784 4.6813 93 152 196
-2.9016 1.8779 4.6801 94 153 195
-2.8767 1.8769 4.6776 94 151 194
-2.8509 1.8753 4.6736 95 153 193
-2.8313 1.8778 4.6799 97 155 195
-2.8091 1.8786 4.6818 96 154 192
-2.7863 1.8790 4.6829 95 155 192
-2.7608 1.8776 4.6794 95 155 191
-2.7151 1.8623 4.6412 138 154 143
-2.7103 1.8750 4.6730 182 158 94
-2.6892 1.8766 4.6769 189 155 83
-2.6642 1.8754 4.6740 183 157 82
-2.6290 1.8671 4.6532 184 152 75
-2.5930 1.8579 4.6304 199 160 93
-2.5885 1.8714 4.6640 165 135 62
-2.5719 1.8763 4.6763 186 156 83
-2.5316 1.8639 4.6452 192 159 90
-2.5176 1.8707 4.6623 189 154 86
-2.4954 1.8716 4.6644 187 152 84
-2.4745 1.8734 4.6689 192 158 87
-2.4524 1.8743 4.6713 202 168 96
-2.4228 1.8695 4.6592 195 161 87
-2.3959 1.8667 4.6523 195 161 87
-2.3817 1.8738 4.6700 191 158 81
-2.3351 1.8553 4.6239 194 162 87
-2.3154 1.8581 4.6309 198 166 93
-2.2917 1.8577 4.6297 197 165 92
-2.2584 1.8493 4.6090 195 163 90
-2.2374 1.8510 4.6131 193 161 86
-2.1712 1.8150 4.5234 159 125 51
-2.1626 1.8463 4.6013 185 151 77
-2.1103 1.8210 4.5383 175 148 77
-2.1012 1.8328 4.5678 135 111 37
-2.0501 1.8280 4.5558 188 161 80
-2.0293 1.8298 4.5602 183 154 74
-2.0057 1.8290 4.5583 197 170 89
-1.9614 1.8092 4.5089 203 176 99
-1.9033 1.7761 4.4263 192 166 91
-1.9366 1.8284 4.5567 198 172 95
-1.8777 1.7939 4.4708 180 153 76
-1.8602 1.7986 4.4824 184 155 79
-1.8474 1.8080 4.5058 177 145 72
-1.8425 1.8254 4.5493 174 142 69
-1.8654 1.8712 4.6635 188 155 84
-1.8380 1.8671 4.6532 166 136 64
-1.7944 1.8462 4.6011 172 144 71
-1.7442 1.8179 4.5305 162 143 74
-1.7029 1.7981 4.4813 172 155 86
-1.6495 1.7650 4.3988 157 138 70
-1.6711 1.8122 4.5164 154 131 61
-1.6836 1.8508 4.6126 146 123 43
-1.6695 1.8608 4.6374 140 114 27
-1.6500 1.8650 4.6480 166 139 52
-1.6246 1.8625 4.6416 156 126 40
-1.5894 1.8485 4.6068 126 99 20
-1.5583 1.8390 4.5831 139 112 35
-1.5426 1.8477 4.6049 148 120 46
-1.5405 1.8731 4.6682 137 109 35
-1.5136 1.8687 4.6572 123 97 22
-1.4811 1.8572 4.6286 114 88 14
-1.4533 1.8513 4.6137 123 99 25
-1.4116 1.8271 4.5534 108 86 11
-1.4184 1.8660 4.6505 108 81 2
-1.4009 1.8737 4.6697 127 100 21
-1.3553 1.8435 4.5944 136 112 38
-1.2945 1.7911 4.4637 99 80 11
-1.3285 1.8704 4.6615 50 36 0
-1.3078 1.8742 4.6708 49 37 0
-1.2821 1.8707 4.6622 79 69 10
-1.2508 1.8588 4.6324 95 86 29
-1.2307 1.8635 4.6443 68 69 3
-1.1830 1.8256 4.5498 80 76 3
-1.1694 1.8401 4.5860 195 180 99
-1.1480 1.8426 4.5921 160 138 52
-1.1379 1.8636 4.6445 105 79 0
-1.1144 1.8631 4.6431 110 86 0
-1.0940 1.8679 4.6552 144 118 33
-1.0756 1.8765 4.6767 129 103 18
-1.0528 1.8775 4.6791 107 72 0
-1.0055 1.8339 4.5705 167 138 68
-0.9630 1.7973 4.4792 184 165 96
-0.9547 1.8242 4.5464 145 120 54
-0.9302 1.8207 4.5375 181 150 86
-0.9155 1.8368 4.5776 153 134 58
-0.8935 1.8386 4.5823 117 102 35
-0.8645 1.8258 4.5502 183 159 95
-0.8469 1.8369 4.5781 175 154 87
-0.8134 1.8131 4.5187 176 157 91
-0.8026 1.8403 4.5864 148 127 62
-0.7617 1.7979 4.4808 115 94 29
-0.7394 1.7981 4.4813 179 158 93
-0.7299 1.8304 4.5618 155 134 71
-0.7060 1.8277 4.5549 139 115 53
-0.6859 1.8347 4.5725 176 152 90
-0.6573 1.8190 4.5334 151 128 58
-0.6315 1.8099 4.5108 190 167 97
-0.6156 1.8297 4.5600 171 151 82
-0.5867 1.8109 4.5132 102 81 14
-0.5650 1.8137 4.5202 177 158 92
-0.5466 1.8277 4.5549 160 140 77
-0.5191 1.8111 4.5136 170 152 86
-0.5034 1.8362 4.5763 136 118 52
-0.4727 1.8065 4.5023 133 118 61
-0.4477 1.7963 4.4769 182 166 107
-0.4337 1.8319 4.5654 125 106 40
-0.4163 1.8561 4.6258 149 127 54
-0.3965 1.8716 4.6645 143 119 45
-0.3700 1.8557 4.6247 170 146 72
-0.3414 1.8264 4.5519 141 117 47
-0.3256 1.8663 4.6512 179 156 88
-0.3006 1.8554 4.6240 154 132 57
-0.2735 1.8294 4.5591 139 115 41
-0.2511 1.8319 4.5655 150 124 50
-0.2324 1.8650 4.6480 159 130 60
-0.2100 1.8729 4.6677 144 115 47
-0.1852 1.8577 4.6297 165 136 68
-0.1627 1.8650 4.6480 140 111 43
-0.1391 1.8611 4.6382 167 140 71
-0.1165 1.8692 4.6584 185 162 94
-0.0698 1.8674 4.6541 166 142 68
-0.0459 1.8425 4.5919 165 139 64
-0.0227 1.8250 4.5483 152 125 48
0.0000 1.8556 4.6245 148 121 44
0.0231 1.8568 4.6274 159 131 57
0.0463 1.8565 4.6269 176 148 75
0.0695 1.8582 4.6311 169 140 62
0.0932 1.8699 4.6603 176 147 67
0.1156 1.8557 4.6248 148 119 39
0.1375 1.8385 4.5818 185 153 76
0.1611 1.8465 4.6018 161 129 52
0.1855 1.8606 4.6369 188 156 79
0.2081 1.8556 4.6245 183 150 71
0.2318 1.8601 4.6356 183 150 71
0.2556 1.8650 4.6480 185 156 78
0.2791 1.8665 4.6518 181 154 75
0.3024 1.8670 4.6529 187 158 82
0.3258 1.8677 4.6547 182 152 79
0.3480 1.8618 4.6399 184 154 81
0.3674 1.8427 4.5924 185 155 82
0.3906 1.8437 4.5948 148 120 46
0.4169 1.8588 4.6324 164 138 63
0.4389 1.8539 4.6202 164 139 72
0.4600 1.8459 4.6003 162 137 71
0.4788 1.8299 4.5604 141 117 53
0.4974 1.8145 4.5221 201 180 115
0.5192 1.8117 4.5152 183 164 96
0.5303 1.7732 4.4191 198 178 107
0.5642 1.8112 4.5138 166 144 71
0.5836 1.8012 4.4891 204 182 107
0.6172 1.8344 4.5718 153 132 67
0.6312 1.8091 4.5086 190 170 109
0.6591 1.8238 4.5452 166 146 83
